ply
format ascii 1.0
comment PCL generated
element vertex 965
property float x
property float y
property float z
property uchar red
property uchar green
property uchar blue
property float nx
property float ny
property float nz
property float curvature
element camera 0
property float view_px
property float view_py
property float view_pz
property float x_axisx
property float x_axisy
property float x_axisz
property float y_axisx
property float y_axisy
property float y_axisz
property float z_axisx
property float z_axisy
property float z_axisz
property float focal
property float scalex
property float scaley
property float centerx
property float centery
property int viewportx
property int viewporty
property float k1
property float k2
end_header
0.0453512 -1.9831795 0.034625575 0 0 0 0 0 0 0
0.040763237 -1.7962761 -0.41480973 0 0 0 0 0 0 0
0.043500017 -1.9168752 0.10048504 0 0 0 0 0 0 0
0.047866974 -2.1256657 -0.41329232 0 0 0 0 0 0 0
0.041969676 -1.8783545 0.16437572 0 0 0 0 0 0 0
0.05809883 -2.620681 -0.41517711 0 0 0 0 0 0 0
0.041293904 -1.8774433 0.23057681 0 0 0 0 0 0 0
0.04046388 -1.8544375 0.29378396 0 0 0 0 0 0 0
0.040204618 -1.8725132 0.36406359 0 0 0 0 0 0 0
0.040620074 -1.9073842 0.44045416 0 0 0 0 0 0 0
0.042396296 -2.0072465 -0.035044432 0 0 0 0 0 0 0
0.023020538 -1.0989825 0.29453608 0 0 0 0 0 0 0
0.030440371 -1.5432494 -0.41359285 0 0 0 0 0 0 0
0.038539894 -1.9713231 0.034416147 0 0 0 0 0 0 0
0.034881782 -1.8002981 -0.41570953 0 0 0 0 0 0 0
0.03718181 -1.9190059 0.10058971 0 0 0 0 0 0 0
0.040779974 -2.1238496 -0.41291067 0 0 0 0 0 0 0
0.03570307 -1.8764913 0.16420141 0 0 0 0 0 0 0
0.048588794 -2.5774088 -0.40829399 0 0 0 0 0 0 0
0.035104848 -1.8795546 0.23082055 0 0 0 0 0 0 0
0.038997151 -2.0879529 -0.25641313 0 0 0 0 0 0 0
0.034460444 -1.8624616 0.29503542 0 0 0 0 0 0 0
0.037678827 -2.0558009 -0.17988946 0 0 0 0 0 0 0
0.033923578 -1.8687103 0.36330032 0 0 0 0 0 0 0
0.036297396 -2.0189025 -0.10582332 0 0 0 0 0 0 0
0.034364723 -1.9114053 0.44135398 0 0 0 0 0 0 0
0.03541958 -1.9893818 -0.034730289 0 0 0 0 0 0 0
0.019376012 -1.0990528 0.29453608 0 0 0 0 0 0 0
0.025544394 -1.556863 -0.41721633 0 0 0 0 0 0 0
0.031742807 -1.9554446 0.034136906 0 0 0 0 0 0 0
0.028849151 -1.7965069 -0.41480973 0 0 0 0 0 0 0
0.03061006 -1.927112 0.10100841 0 0 0 0 0 0 0
0.033861708 -2.1318254 -0.41443717 0 0 0 0 0 0 0
0.029511428 -1.8785914 0.16437572 0 0 0 0 0 0 0
0.032309297 -2.0798209 -0.32945102 0 0 0 0 0 0 0
0.028811006 -1.8756911 0.23033307 0 0 0 0 0 0 0
0.031587977 -2.080137 -0.25543818 0 0 0 0 0 0 0
0.027958978 -1.8625705 0.29503542 0 0 0 0 0 0 0
0.030562215 -2.0359929 -0.17814633 0 0 0 0 0 0 0
0.027755579 -1.8707756 0.36368197 0 0 0 0 0 0 0
0.02922179 -1.9930503 -0.10446258 0 0 0 0 0 0 0
0.066902705 -4.6180301 1.066268 0 0 0 0 0 0 0
0.028475069 -1.9894934 -0.034730289 0 0 0 0 0 0 0
0.015648693 -1.1068404 0.29660663 0 0 0 0 0 0 0
0.020060016 -1.5530792 -0.41618103 0 0 0 0 0 0 0
0.024789397 -1.9455458 0.033962384 0 0 0 0 0 0 0
0.022455508 -1.7868537 -0.41256022 0 0 0 0 0 0 0
0.023759199 -1.9172215 0.10048504 0 0 0 0 0 0 0
0.026395656 -2.1299675 -0.41405553 0 0 0 0 0 0 0
0.02302671 -1.8846598 0.16489866 0 0 0 0 0 0 0
0.025120724 -2.0858464 -0.33038962 0 0 0 0 0 0 0
0.022216052 -1.8718102 0.2298456 0 0 0 0 0 0 0
0.024187662 -2.0683248 -0.25397575 0 0 0 0 0 0 0
0.021639429 -1.8784587 0.2975384 0 0 0 0 0 0 0
0.023386421 -2.0301101 -0.17762341 0 0 0 0 0 0 0
0.021381037 -1.8846029 0.36635327 0 0 0 0 0 0 0
0.022152966 -1.9831545 -0.10393922 0 0 0 0 0 0 0
0.050782785 -4.6182356 1.066268 0 0 0 0 0 0 0
0.021508571 -1.9875809 -0.034695383 0 0 0 0 0 0 0
0.011784973 -1.1068883 0.29660663 0 0 0 0 0 0 0
0.01472944 -1.5627986 -0.41876921 0 0 0 0 0 0 0
0.018053461 -1.9516193 0.034067098 0 0 0 0 0 0 0
0.016288994 -1.7947159 -0.41435984 0 0 0 0 0 0 0
0.017031092 -1.9132985 0.1002757 0 0 0 0 0 0 0
0.01892551 -2.1261203 -0.41329232 0 0 0 0 0 0 0
0.016465215 -1.886721 0.16507298 0 0 0 0 0 0 0
0.017619936 -2.0602429 -0.32632235 0 0 0 0 0 0 0
0.015815292 -1.8877566 0.2317955 0 0 0 0 0 0 0
0.016772252 -2.0445766 -0.25105089 0 0 0 0 0 0 0
0.015081975 -1.8785228 0.2975384 0 0 0 0 0 0 0
0.01623559 -2.0222101 -0.17692617 0 0 0 0 0 0 0
0.0148951 -1.8964453 0.36864299 0 0 0 0 0 0 0
0.015138484 -1.9712366 -0.10331119 0 0 0 0 0 0 0
0.034646522 -4.616436 1.0658182 0 0 0 0 0 0 0
0.014394768 -1.9636482 -0.034276526 0 0 0 0 0 0 0
0.0078935931 -1.1030591 0.29557136 0 0 0 0 0 0 0
0.0091711329 -1.5454541 -0.41411048 0 0 0 0 0 0 0
0.011206554 -1.9456716 0.033962384 0 0 0 0 0 0 0
0.010034787 -1.7967105 -0.41480973 0 0 0 0 0 0 0
0.010352504 -1.9133463 0.1002757 0 0 0 0 0 0 0
0.0114828 -2.122247 -0.41252908 0 0 0 0 0 0 0
0.0098583121 -1.8827822 0.16472435 0 0 0 0 0 0 0
0.010508166 -2.0760942 -0.32882527 0 0 0 0 0 0 0
0.0092644459 -1.8957405 0.23277046 0 0 0 0 0 0 0
0.0096071251 -2.0386672 -0.25031966 0 0 0 0 0 0 0
0.0085606435 -1.8864654 0.29878986 0 0 0 0 0 0 0
0.009185886 -2.0242467 -0.17710046 0 0 0 0 0 0 0
0.0083008278 -1.9023755 0.36978784 0 0 0 0 0 0 0
0.008316 -1.9852581 -0.10404389 0 0 0 0 0 0 0
0.018532364 -4.6165285 1.0658182 0 0 0 0 0 0 0
0.0075015891 -1.9536881 -0.034102004 0 0 0 0 0 0 0
0.0040429882 -1.1030799 0.29557136 0 0 0 0 0 0 0
0.0037763927 -1.5454767 -0.41411048 0 0 0 0 0 0 0
0.0043693981 -1.925702 0.033613335 0 0 0 0 0 0 0
0.0037632007 -1.7967346 -0.41480973 0 0 0 0 0 0 0
0.0036848385 -1.9193624 0.10058971 0 0 0 0 0 0 0
0.0040743938 -2.1222744 -0.41252908 0 0 0 0 0 0 0
0.0032964945 -1.8887824 0.16524729 0 0 0 0 0 0 0
0.0032272353 -2.0543892 -0.32538372 0 0 0 0 0 0 0
0.0026635977 -1.9076719 0.23423289 0 0 0 0 0 0 0
0.0024955831 -2.0426583 -0.25080714 0 0 0 0 0 0 0
0.0019923211 -1.9022869 0.30129281 0 0 0 0 0 0 0
0.0021012942 -2.0063353 -0.17553167 0 0 0 0 0 0 0
0.0040279855 -4.6156096 0.89718395 0 0 0 0 0 0 0
0.00241484 -4.6126676 1.0649183 0 0 0 0 0 0 0
0.00068068091 -1.949703 -0.034032192 0 0 0 0 0 0 0
0.00019327132 -1.106951 0.29660663 0 0 0 0 0 0 0
-0.001624463 -1.5512761 -0.41566339 0 0 0 0 0 0 0
-0.0023501934 -1.9237056 0.033578429 0 0 0 0 0 0 0
-0.002505712 -1.7947881 -0.41435984 0 0 0 0 0 0 0
-0.0029991481 -1.9093773 0.10006636 0 0 0 0 0 0 0
-0.0033304733 -2.1203122 -0.41214746 0 0 0 0 0 0 0
-0.0033138208 -1.8987443 0.16611885 0 0 0 0 0 0 0
-0.0039025254 -2.0326588 -0.32194218 0 0 0 0 0 0 0
-0.0039661606 -1.893774 0.23252673 0 0 0 0 0 0 0
-0.0046209428 -2.0366995 -0.25007591 0 0 0 0 0 0 0
-0.0046771518 -1.9141344 0.30317003 0 0 0 0 0 0 0
-0.0049121673 -2.0103152 -0.17588028 0 0 0 0 0 0 0
-0.012063092 -4.6077423 0.89565748 0 0 0 0 0 0 0
-0.0028833831 -1.0325789 -0.054115385 0 0 0 0 0 0 0
-0.013714879 -4.6223917 1.0671679 0 0 0 0 0 0 0
-0.0061628046 -1.9616917 -0.034241624 0 0 0 0 0 0 0
-0.0036579284 -1.1030812 0.29557136 0 0 0 0 0 0 0
-0.0070655742 -1.5570564 -0.41721633 0 0 0 0 0 0 0
-0.0090652183 -1.9236858 0.033578429 0 0 0 0 0 0 0
-0.0087423697 -1.7889222 -0.41301015 0 0 0 0 0 0 0
-0.0096843718 -1.9133497 0.1002757 0 0 0 0 0 0 0
-0.01074172 -2.122251 -0.41252908 0 0 0 0 0 0 0
-0.0099834353 -1.9066906 0.16681609 0 0 0 0 0 0 0
-0.010954871 -2.0247316 -0.32069072 0 0 0 0 0 0 0
-0.010587781 -1.8957336 0.23277046 0 0 0 0 0 0 0
-0.011616047 -2.0168204 -0.24763852 0 0 0 0 0 0 0
-0.011428855 -1.9259585 0.30504724 0 0 0 0 0 0 0
-0.011964732 -2.0162628 -0.17640322 0 0 0 0 0 0 0
-0.028195139 -4.6155248 0.89718395 0 0 0 0 0 0 0
-0.0064376942 -1.0245737 -0.053696696 0 0 0 0 0 0 0
-0.029811777 -4.6164694 1.0658182 0 0 0 0 0 0 0
-0.0075347084 -1.1069254 0.29660663 0 0 0 0 0 0 0
-0.01253192 -1.5608859 -0.4182516 0 0 0 0 0 0 0
-0.015845746 -1.9316409 0.03371805 0 0 0 0 0 0 0
-0.015051959 -1.7966754 -0.41480973 0 0 0 0 0 0 0
-0.016363204 -1.9133043 0.1002757 0 0 0 0 0 0 0
-0.018116171 -2.118274 -0.41176581 0 0 0 0 0 0 0
-0.016621634 -1.9046518 0.16664177 0 0 0 0 0 0 0
-0.01809258 -2.032582 -0.32194218 0 0 0 0 0 0 0
-0.017241145 -1.8996551 0.23325793 0 0 0 0 0 0 0
-0.018600963 -2.0108125 -0.24690731 0 0 0 0 0 0 0
-0.043601837 -4.6261268 0.73273909 0 0 0 0 0 0 0
-0.0098395115 -1.0439658 -0.091339223 0 0 0 0 0 0 0
-0.044381119 -4.623251 0.89871037 0 0 0 0 0 0 0
-0.0099359099 -1.0165564 -0.053278007 0 0 0 0 0 0 0
-0.045946151 -4.6182861 1.066268 0 0 0 0 0 0 0
-0.010546193 -1.041788 -0.018185407 0 0 0 0 0 0 0
-0.011398452 -1.1068923 0.29660663 0 0 0 0 0 0 0
-0.017891198 -1.5531057 -0.41618103 0 0 0 0 0 0 0
-0.022634927 -1.935573 0.033787858 0 0 0 0 0 0 0
-0.021369955 -1.8005091 -0.41570953 0 0 0 0 0 0 0
-0.023017554 -1.9112383 0.10017103 0 0 0 0 0 0 0
-0.025486382 -2.1162348 -0.41138422 0 0 0 0 0 0 0
-0.023269836 -1.9045823 0.16664177 0 0 0 0 0 0 0
-0.025359152 -2.0463333 -0.32413223 0 0 0 0 0 0 0
-0.024021797 -1.9114931 0.23472038 0 0 0 0 0 0 0
-0.02587262 -2.0305846 -0.24934469 0 0 0 0 0 0 0
-0.059468716 -4.6042194 0.72929758 0 0 0 0 0 0 0
-0.013535269 -1.0339617 -0.090467662 0 0 0 0 0 0 0
-0.060544841 -4.6250315 0.89909208 0 0 0 0 0 0 0
-0.013351862 -1.00653 -0.052754648 0 0 0 0 0 0 0
-0.062118653 -4.621995 1.0671679 0 0 0 0 0 0 0
-0.014046566 -1.0317473 -0.018010885 0 0 0 0 0 0 0
-0.015262321 -1.1068457 0.29660663 0 0 0 0 0 0 0
-0.023554191 -1.5510981 -0.41566339 0 0 0 0 0 0 0
-0.029300161 -1.9294837 0.033683144 0 0 0 0 0 0 0
-0.027714469 -1.8043206 -0.41660935 0 0 0 0 0 0 0
-0.029688934 -1.9111464 0.10017103 0 0 0 0 0 0 0
-0.033335406 -2.1220164 -0.41252908 0 0 0 0 0 0 0
-0.030155428 -1.8985078 0.16611885 0 0 0 0 0 0 0
-0.032795522 -2.0422761 -0.3235065 0 0 0 0 0 0 0
-0.031044435 -1.9332306 0.2374015 0 0 0 0 0 0 0
-0.032960825 -2.0304818 -0.24934469 0 0 0 0 0 0 0
-0.075734094 -4.6158342 0.73117477 0 0 0 0 0 0 0
-0.016913179 -1.0199633 -0.08924748 0 0 0 0 0 0 0
-0.077463202 -4.6228151 0.89871037 0 0 0 0 0 0 0
-0.017007096 -1.0044774 -0.052649979 0 0 0 0 0 0 0
-0.079125434 -4.6256328 1.0680676 0 0 0 0 0 0 0
-0.01768218 -1.0336913 -0.018045789 0 0 0 0 0 0 0
-0.019058984 -1.1029227 0.29557136 0 0 0 0 0 0 0
-0.029148811 -1.5606641 -0.4182516 0 0 0 0 0 0 0
-0.036560137 -1.9393601 0.03385767 0 0 0 0 0 0 0
-0.034105051 -1.7925165 -0.41390994 0 0 0 0 0 0 0
-0.036815878 -1.9349939 0.10142709 0 0 0 0 0 0 0
-0.04093067 -2.1317015 -0.41443717 0 0 0 0 0 0 0
-0.036782552 -1.898391 0.16611885 0 0 0 0 0 0 0
-0.03976981 -2.0342495 -0.32225505 0 0 0 0 0 0 0
-0.040322181 -2.0442476 0.25105089 0 0 0 0 0 0 0
-0.040639695 -2.0422556 -0.25080714 0 0 0 0 0 0 0
-0.091925196 -4.6194921 0.73180056 0 0 0 0 0 0 0
-0.020393467 -1.0159141 -0.08889886 0 0 0 0 0 0 0
-0.093598939 -4.6225166 0.89871037 0 0 0 0 0 0 0
-0.020309392 -0.99442768 -0.052126616 0 0 0 0 0 0 0
-0.095351815 -4.6292253 1.0689675 0 0 0 0 0 0 0
-0.021125635 -1.0256262 -0.017906168 0 0 0 0 0 0 0
-0.022667961 -1.0912607 0.29246551 0 0 0 0 0 0 0
-0.034639038 -1.5624841 -0.41876921 0 0 0 0 0 0 0
-0.040049136 -1.7923937 -0.41390994 0 0 0 0 0 0 0
-0.043390241 -1.9268665 0.10100841 0 0 0 0 0 0 0
-0.048415791 -2.1335082 -0.41481876 0 0 0 0 0 0 0
-0.043682072 -1.9102023 0.16716471 0 0 0 0 0 0 0
-0.046515487 -2.0341065 -0.32225505 0 0 0 0 0 0 0
-0.06415797 -2.7843456 0.34196541 0 0 0 0 0 0 0
-0.047043063 -2.0262332 -0.24885722 0 0 0 0 0 0 0
-0.10814163 -4.6230927 0.73242623 0 0 0 0 0 0 0
-0.024080269 -1.0218121 -0.089421786 0 0 0 0 0 0 0
-0.10901994 -4.6261063 0.89947367 0 0 0 0 0 0 0
-0.023322538 -0.98237467 -0.051498584 0 0 0 0 0 0 0
-0.11060879 -4.6249871 1.0680676 0 0 0 0 0 0 0
-0.024705514 -1.0255462 -0.017906168 0 0 0 0 0 0 0
-0.026758371 -1.1027627 0.29557136 0 0 0 0 0 0 0
-0.039869517 -1.5642918 -0.41928688 0 0 0 0 0 0 0
-0.027393844 -1.067486 0.018639171 0 0 0 0 0 0 0
-0.046204682 -1.7883468 -0.41301015 0 0 0 0 0 0 0
-0.049573224 -1.9187257 0.10058971 0 0 0 0 0 0 0
-0.055286378 -2.1254857 -0.41329232 0 0 0 0 0 0 0
-0.050381448 -1.9239888 0.16838489 0 0 0 0 0 0 0
-0.054031808 -2.0497293 -0.32475799 0 0 0 0 0 0 0
-0.073666215 -2.7761672 0.34099045 0 0 0 0 0 0 0
-0.054274723 -2.0320101 -0.24958843 0 0 0 0 0 0 0
-0.12331372 -4.6167846 0.73148763 0 0 0 0 0 0 0
-0.027147358 -1.0097766 -0.088375926 0 0 0 0 0 0 0
-0.12543304 -4.6355104 0.90138179 0 0 0 0 0 0 0
-0.026805807 -0.9842838 -0.051603258 0 0 0 0 0 0 0
-0.12664568 -4.620677 1.0671679 0 0 0 0 0 0 0
-0.027558375 -1.0054693 -0.017557122 0 0 0 0 0 0 0
-0.030521559 -1.1065301 0.29660663 0 0 0 0 0 0 0
-0.044937976 -1.5506259 -0.41566339 0 0 0 0 0 0 0
-0.03081766 -1.0633916 0.01856936 0 0 0 0 0 0 0
-0.052418832 -1.7979232 -0.41525963 0 0 0 0 0 0 0
-0.056446474 -1.9245301 0.10090373 0 0 0 0 0 0 0
-0.062531732 -2.1193924 -0.41214746 0 0 0 0 0 0 0
-0.057333361 -1.9317672 0.16908213 0 0 0 0 0 0 0
-0.061004531 -2.0554621 -0.32569659 0 0 0 0 0 0 0
-0.082694307 -2.7699549 0.34025922 0 0 0 0 0 0 0
-0.031221438 -1.0397198 -0.12771909 0 0 0 0 0 0 0
-0.13936847 -4.6143513 0.73117477 0 0 0 0 0 0 0
-0.030430008 -1.0017098 -0.087678678 0 0 0 0 0 0 0
-0.14080444 -4.6350689 0.90138179 0 0 0 0 0 0 0
-0.029947713 -0.98019683 -0.051393915 0 0 0 0 0 0 0
-0.14208703 -4.6241269 1.0680676 0 0 0 0 0 0 0
-0.031006211 -1.0033681 -0.017522216 0 0 0 0 0 0 0
-0.034143887 -1.0986931 0.29453608 0 0 0 0 0 0 0
-0.050017487 -1.5485375 -0.41514575 0 0 0 0 0 0 0
-0.033945289 -1.0452896 0.018255217 0 0 0 0 0 0 0
-0.058948629 -1.8055202 -0.41705924 0 0 0 0 0 0 0
-0.063032769 -1.9203291 0.1006944 0 0 0 0 0 0 0
-0.06981726 -2.1270223 -0.41367394 0 0 0 0 0 0 0
-0.092125989 -2.7918105 0.24438471 0 0 0 0 0 0 0
-0.067720905 -2.0414166 -0.3235065 0 0 0 0 0 0 0
-0.091833189 -2.7537773 0.33830932 0 0 0 0 0 0 0
-0.034650926 -1.0336524 -0.12698787 0 0 0 0 0 0 0
-0.15594111 -4.6276569 0.73336488 0 0 0 0 0 0 0
-0.033349067 -0.98965585 -0.086632803 0 0 0 0 0 0 0
-0.15671672 -4.6267009 0.89985526 0 0 0 0 0 0 0
-0.033504888 -0.98407853 -0.051603258 0 0 0 0 0 0 0
-0.15849467 -4.631393 1.0698671 0 0 0 0 0 0 0
-0.034852169 -1.0132464 -0.01769674 0 0 0 0 0 0 0
-0.038512707 -1.1140128 0.29867718 0 0 0 0 0 0 0
-0.055698868 -1.5560759 -0.41721633 0 0 0 0 0 0 0
-0.03759373 -1.0451648 0.018255217 0 0 0 0 0 0 0
-0.06496942 -1.7975135 -0.41525963 0 0 0 0 0 0 0
-0.077312581 -2.1287274 -0.41405553 0 0 0 0 0 0 0
-0.10143477 -2.7795253 0.24333882 0 0 0 0 0 0 0
-0.074484251 -2.0312974 -0.32194218 0 0 0 0 0 0 0
-0.10086049 -2.7375703 0.33635944 0 0 0 0 0 0 0
-0.038552601 -1.0414602 -0.12796283 0 0 0 0 0 0 0
-0.17224009 -4.631032 0.73399061 0 0 0 0 0 0 0
-0.037247621 -1.0014794 -0.087678678 0 0 0 0 0 0 0
-0.17279279 -4.6241636 0.89947367 0 0 0 0 0 0 0
-0.03664019 -0.97597218 -0.051184569 0 0 0 0 0 0 0
-0.17465985 -4.6308117 1.0698671 0 0 0 0 0 0 0
-0.038237438 -1.009122 -0.01762693 0 0 0 0 0 0 0
-0.041372471 -1.0868454 0.29143026 0 0 0 0 0 0 0
-0.061281979 -1.5597328 -0.4182516 0 0 0 0 0 0 0
-0.040926412 -1.0370347 0.018115599 0 0 0 0 0 0 0
-0.071011797 -1.791434 -0.41390994 0 0 0 0 0 0 0
-0.044098649 -1.1076013 0.058092915 0 0 0 0 0 0 0
-0.0850555 -2.1362917 -0.41558203 0 0 0 0 0 0 0
-0.11097737 -2.7751727 0.24299021 0 0 0 0 0 0 0
-0.081098519 -2.0191824 -0.32006493 0 0 0 0 0 0 0
-0.10993579 -2.7253003 0.33489698 0 0 0 0 0 0 0
-0.041223478 -1.0175177 -0.12503795 0 0 0 0 0 0 0
-0.18752056 -4.6086912 0.73054904 0 0 0 0 0 0 0
-0.040743116 -1.0013433 -0.087678678 0 0 0 0 0 0 0
-0.18580702 -4.547029 0.88459057 0 0 0 0 0 0 0
-0.039637182 -0.96586043 -0.05066121 0 0 0 0 0 0 0
-0.1899413 -4.6087556 1.0649183 0 0 0 0 0 0 0
-0.041759606 -1.0089824 -0.01762693 0 0 0 0 0 0 0
-0.046128597 -1.1098566 0.29764193 0 0 0 0 0 0 0
-0.06689129 -1.5633695 -0.41928688 0 0 0 0 0 0 0
-0.045061104 -1.0488727 0.018325027 0 0 0 0 0 0 0
-0.077432871 -1.7950692 -0.41480973 0 0 0 0 0 0 0
-0.047445994 -1.0954683 0.057464886 0 0 0 0 0 0 0
-0.092087075 -2.1261744 -0.41367394 0 0 0 0 0 0 0
-0.12040392 -2.7687972 0.24246727 0 0 0 0 0 0 0
-0.088663571 -2.0307281 -0.32194218 0 0 0 0 0 0 0
-0.11944795 -2.7249 0.33489698 0 0 0 0 0 0 0
-0.044862211 -1.0193508 -0.12528169 0 0 0 0 0 0 0
-0.20325863 -4.6001148 0.72929758 0 0 0 0 0 0 0
-0.044238355 -1.001195 -0.087678678 0 0 0 0 0 0 0
-0.20559335 -4.6346126 0.90176338 0 0 0 0 0 0 0
-0.043097191 -0.96771145 -0.050765883 0 0 0 0 0 0 0
-0.20611434 -4.6100116 1.0653682 0 0 0 0 0 0 0
-0.044922728 -1.0008398 -0.017487312 0 0 0 0 0 0 0
-0.049654625 -1.1019691 0.29557136 0 0 0 0 0 0 0
-0.072082967 -1.5515351 -0.41618103 0 0 0 0 0 0 0
-0.048625667 -1.0427078 0.018220313 0 0 0 0 0 0 0
-0.084193662 -1.7986665 -0.41570953 0 0 0 0 0 0 0
-0.051273316 -1.0912969 0.057255544 0 0 0 0 0 0 0
-0.099695019 -2.1219003 -0.41291067 0 0 0 0 0 0 0
-0.12998818 -2.7563961 0.24142142 0 0 0 0 0 0 0
-0.096012361 -2.0284164 -0.32162929 0 0 0 0 0 0 0
-0.12905797 -2.7165127 0.33392206 0 0 0 0 0 0 0
-0.048787136 -1.0231452 -0.12576917 0 0 0 0 0 0 0
-0.22153406 -4.6289358 0.73399061 0 0 0 0 0 0 0
-0.047145691 -0.98510528 -0.086284183 0 0 0 0 0 0 0
-0.22323811 -4.6475549 0.90443468 0 0 0 0 0 0 0
-0.046836104 -0.97153687 -0.050975226 0 0 0 0 0 0 0
-0.22413969 -4.6325827 1.070767 0 0 0 0 0 0 0
-0.048299737 -0.99467635 -0.017382598 0 0 0 0 0 0 0
-0.053881299 -1.1056389 0.29660663 0 0 0 0 0 0 0
-0.077016488 -1.5416269 -0.41359285 0 0 0 0 0 0 0
-0.051363882 -1.0245571 0.017906168 0 0 0 0 0 0 0
-0.090471707 -1.7983617 -0.41570953 0 0 0 0 0 0 0
-0.055082373 -1.0911113 0.057255544 0 0 0 0 0 0 0
-0.10700232 -2.1195791 -0.41252908 0 0 0 0 0 0 0
-0.13870189 -2.7380171 0.23985259 0 0 0 0 0 0 0
-0.10249063 -2.0162318 -0.3197521 0 0 0 0 0 0 0
-0.13833708 -2.7120802 0.33343455 0 0 0 0 0 0 0
-0.051952548 -1.0150387 -0.12479421 0 0 0 0 0 0 0
-0.23779163 -4.6301074 0.73430347 0 0 0 0 0 0 0
-0.050379597 -0.98095524 -0.085935563 0 0 0 0 0 0 0
-0.23905517 -4.6389046 0.90290827 0 0 0 0 0 0 0
-0.050227262 -0.97136748 -0.050975226 0 0 0 0 0 0 0
-0.24051113 -4.6356645 1.0716668 0 0 0 0 0 0 0
-0.051875379 -0.9964987 -0.017417502 0 0 0 0 0 0 0
-0.057337325 -1.0977272 0.29453608 0 0 0 0 0 0 0
-0.083015919 -1.5529234 -0.41669869 0 0 0 0 0 0 0
-0.054832999 -1.0223747 0.017871264 0 0 0 0 0 0 0
-0.096329622 -1.7902511 -0.41390994 0 0 0 0 0 0 0
-0.058378298 -1.0849395 0.056941528 0 0 0 0 0 0 0
-0.11503515 -2.130955 -0.41481876 0 0 0 0 0 0 0
-0.15019801 -2.7733266 0.24299021 0 0 0 0 0 0 0
-0.10942085 -2.0138893 -0.3194392 0 0 0 0 0 0 0
-0.14715467 -2.6996884 0.33197212 0 0 0 0 0 0 0
-0.055820458 -1.0207976 -0.12552544 0 0 0 0 0 0 0
-0.25336021 -4.6332383 0.73492926 0 0 0 0 0 0 0
-0.054021757 -0.98475218 -0.086284183 0 0 0 0 0 0 0
-0.25503141 -4.6341209 0.90214497 0 0 0 0 0 0 0
-0.053177178 -0.96320933 -0.050556537 0 0 0 0 0 0 0
-0.2573373 -4.646471 1.0743662 0 0 0 0 0 0 0
-0.055179641 -0.9963212 -0.017417502 0 0 0 0 0 0 0
-0.061191577 -1.1013887 0.29557136 0 0 0 0 0 0 0
-0.08876574 -1.5584102 -0.4182516 0 0 0 0 0 0 0
-0.058564082 -1.0281767 0.01797598 0 0 0 0 0 0 0
-0.10215469 -1.7879764 -0.41346005 0 0 0 0 0 0 0
-0.061479475 -1.0727652 0.056313496 0 0 0 0 0 0 0
-0.12247318 -2.1305404 -0.41481876 0 0 0 0 0 0 0
-0.067437589 -1.1695824 0.10249515 0 0 0 0 0 0 0
-0.11655323 -2.021404 -0.32069072 0 0 0 0 0 0 0
-0.15530445 -2.6853127 0.33026594 0 0 0 0 0 0 0
-0.05863047 -1.010698 -0.12430675 0 0 0 0 0 0 0
-0.26999024 -4.6402135 0.73618072 0 0 0 0 0 0 0
-0.057691038 -0.98853558 -0.086632803 0 0 0 0 0 0 0
-0.27096888 -4.6430497 0.90405309 0 0 0 0 0 0 0
-0.056371041 -0.96302772 -0.050556537 0 0 0 0 0 0 0
-0.27205905 -4.6339202 1.0716668 0 0 0 0 0 0 0
-0.058892246 -1.000115 -0.017487312 0 0 0 0 0 0 0
-0.065263465 -1.1050254 0.29660663 0 0 0 0 0 0 0
-0.093584433 -1.5523224 -0.41669869 0 0 0 0 0 0 0
-0.061911386 -1.0239738 0.017906168 0 0 0 0 0 0 0
-0.10851327 -1.789554 -0.41390994 0 0 0 0 0 0 0
-0.064253911 -1.0565954 0.055476118 0 0 0 0 0 0 0
-0.12906078 -2.1222839 -0.41329232 0 0 0 0 0 0 0
-0.071073174 -1.1653751 0.10214653 0 0 0 0 0 0 0
-0.12360884 -2.0209849 -0.32069072 0 0 0 0 0 0 0
-0.16406909 -2.6748476 0.32904723 0 0 0 0 0 0 0
-0.061914254 -1.0065244 -0.12381926 0 0 0 0 0 0 0
-0.28570014 -4.6313567 0.73492926 0 0 0 0 0 0 0
-0.06145956 -0.99629337 -0.087330058 0 0 0 0 0 0 0
-0.28753829 -4.6479545 0.90519798 0 0 0 0 0 0 0
-0.059979539 -0.96681195 -0.050765883 0 0 0 0 0 0 0
-0.28823292 -4.6329422 1.0716668 0 0 0 0 0 0 0
-0.062009413 -0.99391586 -0.017382598 0 0 0 0 0 0 0
-0.069120221 -1.1047909 0.29660663 0 0 0 0 0 0 0
-0.098879531 -1.5500581 -0.41618103 0 0 0 0 0 0 0
-0.066123515 -1.0337297 0.018080693 0 0 0 0 0 0 0
-0.11488411 -1.7911091 -0.41435984 0 0 0 0 0 0 0
-0.068069942 -1.0583578 0.055580791 0 0 0 0 0 0 0
-0.13672023 -2.1257389 -0.41405553 0 0 0 0 0 0 0
-0.073601834 -1.1412607 0.10005479 0 0 0 0 0 0 0
-0.13040748 -2.0165982 -0.32006493 0 0 0 0 0 0 0
-0.065685041 -1.010264 -0.12430675 0 0 0 0 0 0 0
-0.3021214 -4.6342731 0.73555493 0 0 0 0 0 0 0
-0.064288735 -0.98613185 -0.086458497 0 0 0 0 0 0 0
-0.30376053 -4.6469221 0.90519798 0 0 0 0 0 0 0
-0.063092873 -0.96261072 -0.050556537 0 0 0 0 0 0 0
-0.30491388 -4.6396861 1.0734664 0 0 0 0 0 0 0
-0.065083914 -0.98770738 -0.017277883 0 0 0 0 0 0 0
-0.070938677 -1.0737005 0.28832445 0 0 0 0 0 0 0
-0.10351121 -1.5381386 -0.41307521 0 0 0 0 0 0 0
-0.06905856 -1.0235167 0.017906168 0 0 0 0 0 0 0
-0.12100385 -1.7887529 -0.41390994 0 0 0 0 0 0 0
-0.072169244 -1.0640919 0.055894807 0 0 0 0 0 0 0
-0.077179804 -1.1350335 0.099531859 0 0 0 0 0 0 0
-0.086496487 -1.2655215 0.15574904 0 0 0 0 0 0 0
-0.069618151 -1.0159699 -0.12503795 0 0 0 0 0 0 0
-0.31843174 -4.6351609 0.7358678 0 0 0 0 0 0 0
-0.067457505 -0.98192602 -0.086109869 0 0 0 0 0 0 0
-0.31943995 -4.6379986 0.90367144 0 0 0 0 0 0 0
-0.066452533 -0.96238464 -0.050556537 0 0 0 0 0 0 0
-0.32151142 -4.6444254 1.0748161 0 0 0 0 0 0 0
-0.069085188 -0.99545366 -0.017417502 0 0 0 0 0 0 0
-0.075356483 -1.0830823 0.29091263 0 0 0 0 0 0 0
-0.10396786 -1.4683949 -0.39444023 0 0 0 0 0 0 0
-0.072206058 -1.0172855 0.017801456 0 0 0 0 0 0 0
-0.12890705 -1.8116455 -0.41930875 0 0 0 0 0 0 0
-0.075741105 -1.0618412 0.055790137 0 0 0 0 0 0 0
-0.080572821 -1.1268079 0.098834611 0 0 0 0 0 0 0
-0.088494822 -1.2315521 0.15160547 0 0 0 0 0 0 0
-0.073449276 -1.0196807 -0.12552544 0 0 0 0 0 0 0
-0.33546326 -4.6458426 0.73774499 0 0 0 0 0 0 0
-0.071458645 -0.98963338 -0.086807117 0 0 0 0 0 0 0
-0.33591124 -4.6407719 0.90443468 0 0 0 0 0 0 0
-0.069522433 -0.95816278 -0.050347198 0 0 0 0 0 0 0
-0.33899394 -4.6607671 1.0788652 0 0 0 0 0 0 0
-0.073431917 -1.0071728 -0.01762693 0 0 0 0 0 0 0
-0.079559281 -1.0885926 0.29246551 0 0 0 0 0 0 0
-0.097639613 -1.3139 -0.35302919 0 0 0 0 0 0 0
-0.07605359 -1.0210155 0.017871264 0 0 0 0 0 0 0
-0.079298124 -1.0595787 0.055685461 0 0 0 0 0 0 0
-0.10456485 -1.3939208 -0.27171201 0 0 0 0 0 0 0
-0.083909631 -1.1185725 0.098137364 0 0 0 0 0 0 0
-0.10086367 -1.341445 -0.21306378 0 0 0 0 0 0 0
-0.093539014 -1.2411332 0.15282416 0 0 0 0 0 0 0
-0.076260671 -1.0095209 -0.12430675 0 0 0 0 0 0 0
-0.35197613 -4.6485834 0.73837078 0 0 0 0 0 0 0
-0.075688347 -0.99731153 -0.087504365 0 0 0 0 0 0 0
-0.34919554 -4.590569 0.89489418 0 0 0 0 0 0 0
-0.073033832 -0.95790154 -0.050347198 0 0 0 0 0 0 0
-0.07633771 -0.99893492 -0.017487312 0 0 0 0 0 0 0
-0.083358593 -1.0883083 0.29246551 0 0 0 0 0 0 0
-0.1015533 -1.3019773 -0.34992337 0 0 0 0 0 0 0
-0.08010713 -1.0247171 0.017941073 0 0 0 0 0 0 0
-0.105335 -1.344408 -0.31133226 0 0 0 0 0 0 0
-0.082555741 -1.0513164 0.055266771 0 0 0 0 0 0 0
-0.10197123 -1.295668 -0.25263113 0 0 0 0 0 0 0
-0.088321358 -1.1222298 0.098485984 0 0 0 0 0 0 0
-0.10018777 -1.270173 -0.20180048 0 0 0 0 0 0 0
-0.095271483 -1.2051615 0.14843687 0 0 0 0 0 0 0
-0.079489782 -1.0032978 -0.12357552 0 0 0 0 0 0 0
-0.36854315 -4.6413541 0.73743218 0 0 0 0 0 0 0
-0.079027079 -0.99305516 -0.087155737 0 0 0 0 0 0 0
-0.36367732 -4.5599031 0.88916999 0 0 0 0 0 0 0
-0.077180773 -0.96559101 -0.050765883 0 0 0 0 0 0 0
-0.10822304 -1.3539537 0.31358176 0 0 0 0 0 0 0
-0.079359658 -0.99067509 -0.017347692 0 0 0 0 0 0 0
-0.088583685 -1.1034008 0.29660663 0 0 0 0 0 0 0
-0.11324516 -1.3863156 -0.37269944 0 0 0 0 0 0 0
-0.083862379 -1.0244166 0.017941073 0 0 0 0 0 0 0
-0.1096243 -1.3362441 -0.30953264 0 0 0 0 0 0 0
-0.08638823 -1.0530125 0.055371448 0 0 0 0 0 0 0
-0.11067587 -1.3461771 -0.26255319 0 0 0 0 0 0 0
-0.09145236 -1.1099846 0.097440116 0 0 0 0 0 0 0
-0.10386726 -1.2579851 -0.19992328 0 0 0 0 0 0 0
-0.099524312 -1.2028259 0.14819314 0 0 0 0 0 0 0
-0.083318867 -1.0069709 -0.124063 0 0 0 0 0 0 0
-0.38457865 -4.6380711 0.73711932 0 0 0 0 0 0 0
-0.081998192 -0.9868167 -0.086632803 0 0 0 0 0 0 0
-0.37975463 -4.5605621 0.88955158 0 0 0 0 0 0 0
-0.080716848 -0.96730608 -0.050870556 0 0 0 0 0 0 0
-0.11262435 -1.3496838 0.31268197 0 0 0 0 0 0 0
-0.082150884 -0.98242116 -0.017208073 0 0 0 0 0 0 0
-0.089369737 -1.0665079 0.28677151 0 0 0 0 0 0 0
-0.12946229 -1.5226007 -0.40945172 0 0 0 0 0 0 0
-0.087089159 -1.0221403 0.017906168 0 0 0 0 0 0 0
-0.15152061 -1.7746921 -0.41121054 0 0 0 0 0 0 0
-0.09021952 -1.0567002 0.055580791 0 0 0 0 0 0 0
-0.18275033 -2.1360705 -0.41672686 0 0 0 0 0 0 0
-0.094622202 -1.1037201 0.09691719 0 0 0 0 0 0 0
-0.17262444 -2.0094588 -0.3194392 0 0 0 0 0 0 0
-0.10215051 -1.1866668 0.14624323 0 0 0 0 0 0 0
-0.087508932 -1.016578 -0.12528169 0 0 0 0 0 0 0
-0.40114546 -4.650547 0.73930937 0 0 0 0 0 0 0
-0.085441515 -0.98852432 -0.086807117 0 0 0 0 0 0 0
-0.39419848 -4.5514541 0.8880251 0 0 0 0 0 0 0
-0.084442191 -0.97300237 -0.051184569 0 0 0 0 0 0 0
-0.11693099 -1.3473612 0.31223205 0 0 0 0 0 0 0
-0.086620986 -0.9960885 -0.017452406 0 0 0 0 0 0 0
-0.093408927 -1.0719795 0.28832445 0 0 0 0 0 0 0
-0.13502073 -1.5279361 -0.41100466 0 0 0 0 0 0 0
-0.089949153 -1.0158703 0.017801456 0 0 0 0 0 0 0
-0.15723272 -1.7722387 -0.41076064 0 0 0 0 0 0 0
-0.094084419 -1.0583682 0.055685461 0 0 0 0 0 0 0
-0.18792042 -2.1139419 -0.41252908 0 0 0 0 0 0 0
-0.098635189 -1.1073692 0.09726581 0 0 0 0 0 0 0
-0.17805798 -1.9951023 -0.31724915 0 0 0 0 0 0 0
-0.10467064 -1.170504 0.14429331 0 0 0 0 0 0 0
-0.091056831 -1.0162663 -0.12528169 0 0 0 0 0 0 0
-0.41772977 -4.6530523 0.7399351 0 0 0 0 0 0 0
-0.089075565 -0.99220437 -0.087155737 0 0 0 0 0 0 0
-0.40928963 -4.5501218 0.8880251 0 0 0 0 0 0 0
-0.086771958 -0.96277106 -0.05066121 0 0 0 0 0 0 0
-0.12180876 -1.3488858 0.31268197 0 0 0 0 0 0 0
-0.090097368 -0.99578005 -0.017452406 0 0 0 0 0 0 0
-0.097499117 -1.0754946 0.28935969 0 0 0 0 0 0 0
-0.14247467 -1.5505404 -0.41721633 0 0 0 0 0 0 0
-0.093127914 -1.0115675 0.017731644 0 0 0 0 0 0 0
-0.16449201 -1.7833221 -0.41346005 0 0 0 0 0 0 0
-0.09704309 -1.0500782 0.055266771 0 0 0 0 0 0 0
-0.19656301 -2.1269574 -0.41520041 0 0 0 0 0 0 0
-0.10194898 -1.1010665 0.096742868 0 0 0 0 0 0 0
-0.18721074 -2.0180717 -0.32100356 0 0 0 0 0 0 0
-0.10783719 -1.1602486 0.14307462 0 0 0 0 0 0 0
-0.094235748 -1.0119892 -0.12479421 0 0 0 0 0 0 0
-0.43433598 -4.6554999 0.74056083 0 0 0 0 0 0 0
-0.092353299 -0.98990369 -0.086981431 0 0 0 0 0 0 0
-0.42590046 -4.5564847 0.88955158 0 0 0 0 0 0 0
-0.0897597 -0.95848525 -0.050451867 0 0 0 0 0 0 0
-0.12433209 -1.3251697 0.30728313 0 0 0 0 0 0 0
-0.093946941 -0.99944139 -0.017522216 0 0 0 0 0 0 0
-0.101615 -1.0789945 0.29039499 0 0 0 0 0 0 0
-0.14806952 -1.5519568 -0.41773397 0 0 0 0 0 0 0
-0.09741962 -1.0191988 0.017871264 0 0 0 0 0 0 0
-0.17145906 -1.7904965 -0.41525963 0 0 0 0 0 0 0
-0.10070786 -1.0497332 0.055266771 0 0 0 0 0 0 0
-0.20286113 -2.1145325 -0.41291067 0 0 0 0 0 0 0
-0.10636368 -1.1066536 0.09726581 0 0 0 0 0 0 0
-0.19292873 -2.0036418 -0.31881347 0 0 0 0 0 0 0
-0.11207705 -1.161841 0.14331836 0 0 0 0 0 0 0
-0.097576641 -1.0096782 -0.12455048 0 0 0 0 0 0 0
-0.45134568 -4.6618204 0.74181229 0 0 0 0 0 0 0
-0.096960172 -1.0014739 -0.088027291 0 0 0 0 0 0 0
-0.44218272 -4.5588784 0.89031488 0 0 0 0 0 0 0
-0.094263785 -0.97009349 -0.051079899 0 0 0 0 0 0 0
-0.12839048 -1.3189089 0.30593342 0 0 0 0 0 0 0
-0.097047023 -0.99512678 -0.017452406 0 0 0 0 0 0 0
-0.10650775 -1.0901694 0.29350081 0 0 0 0 0 0 0
-0.15253523 -1.5418183 -0.41514575 0 0 0 0 0 0 0
-0.10196269 -1.0288023 0.018045789 0 0 0 0 0 0 0
-0.17828546 -1.7957047 -0.41660935 0 0 0 0 0 0 0
-0.10476701 -1.0533501 0.055476118 0 0 0 0 0 0 0
-0.2094641 -2.1059973 -0.41138422 0 0 0 0 0 0 0
-0.10943572 -1.0983454 0.096568562 0 0 0 0 0 0 0
-0.11593463 -1.1594675 0.14307462 0 0 0 0 0 0 0
-0.10208975 -1.0192076 -0.12576917 0 0 0 0 0 0 0
-0.46702415 -4.6543198 0.74087369 0 0 0 0 0 0 0
-0.099460803 -0.9912172 -0.087155737 0 0 0 0 0 0 0
-0.45907483 -4.5670743 0.89222288 0 0 0 0 0 0 0
-0.0976495 -0.96975851 -0.051079899 0 0 0 0 0 0 0
-0.13260244 -1.314575 0.30503362 0 0 0 0 0 0 0
-0.10011791 -0.99080288 -0.017382598 0 0 0 0 0 0 0
-0.11031253 -1.0897911 0.29350081 0 0 0 0 0 0 0
-0.15850681 -1.5470418 -0.41669869 0 0 0 0 0 0 0
-0.10473663 -1.020483 0.017906168 0 0 0 0 0 0 0
-0.1837554 -1.7873174 -0.41480973 0 0 0 0 0 0 0
-0.10864776 -1.0549647 0.055580791 0 0 0 0 0 0 0
-0.21822181 -2.1189237 -0.41405553 0 0 0 0 0 0 0
-0.1130647 -1.0959748 0.096394248 0 0 0 0 0 0 0
-0.12061411 -1.1671582 -0.18584417 0 0 0 0 0 0 0
-0.12079868 -1.1669539 0.14404957 0 0 0 0 0 0 0
-0.10585159 -1.0208194 -0.12601291 0 0 0 0 0 0 0
-0.10230269 -0.98491877 -0.086632803 0 0 0 0 0 0 0
-0.47521687 -4.5673966 0.89260459 0 0 0 0 0 0 0
-0.1020692 -0.97934419 -0.051603258 0 0 0 0 0 0 0
-0.13719039 -1.3141041 0.30503362 0 0 0 0 0 0 0
-0.10357599 -0.99044734 -0.017382598 0 0 0 0 0 0 0
-0.11532354 -1.1009274 0.29660663 0 0 0 0 0 0 0
-0.16370226 -1.5445578 -0.41618103 0 0 0 0 0 0 0
-0.10787596 -1.0161343 0.01783636 0 0 0 0 0 0 0
-0.18958108 -1.7827893 -0.41390994 0 0 0 0 0 0 0
-0.11190643 -1.0506071 0.055371448 0 0 0 0 0 0 0
-0.22644849 -2.1259582 -0.41558203 0 0 0 0 0 0 0
-0.11752371 -1.101517 0.09691719 0 0 0 0 0 0 0
-0.11671077 -1.0920908 -0.17395516 0 0 0 0 0 0 0
-0.12254738 -1.1448132 0.14136845 0 0 0 0 0 0 0
-0.10941418 -1.0204437 -0.12601291 0 0 0 0 0 0 0
-0.13225928 -1.2314794 0.19616884 0 0 0 0 0 0 0
-0.10659102 -0.99247974 -0.087330058 0 0 0 0 0 0 0
-0.10441731 -0.96905309 -0.051079899 0 0 0 0 0 0 0
-0.1417765 -1.3136172 0.30503362 0 0 0 0 0 0 0
-0.10789227 -0.99803221 -0.017522216 0 0 0 0 0 0 0
-0.11958177 -1.1043594 0.29764193 0 0 0 0 0 0 0
-0.16993429 -1.5516585 -0.4182516 0 0 0 0 0 0 0
-0.11207632 -1.0217148 0.017941073 0 0 0 0 0 0 0
-0.19516461 -1.7763054 -0.41256022 0 0 0 0 0 0 0
-0.11644711 -1.0581511 0.055790137 0 0 0 0 0 0 0
-0.12071316 -1.0951587 0.096394248 0 0 0 0 0 0 0
-0.12160604 -1.1014941 -0.1755195 0 0 0 0 0 0 0
-0.1263245 -1.1424054 0.14112473 0 0 0 0 0 0 0
-0.11275703 -1.0180826 -0.12576917 0 0 0 0 0 0 0
-0.13677494 -1.2329735 0.1964817 0 0 0 0 0 0 0
-0.11093347 -1.0000225 -0.088027291 0 0 0 0 0 0 0
-0.10757831 -0.96669775 -0.050975226 0 0 0 0 0 0 0
-0.14592947 -1.3092409 0.30413383 0 0 0 0 0 0 0
-0.11270649 -1.0095736 -0.017731644 0 0 0 0 0 0 0
-0.12429469 -1.1116148 0.29971248 0 0 0 0 0 0 0
-0.17556642 -1.5529755 -0.41876921 0 0 0 0 0 0 0
-0.11699215 -1.0332392 0.018150503 0 0 0 0 0 0 0
-0.19960719 -1.7601228 -0.40896103 0 0 0 0 0 0 0
-0.11878751 -1.0458311 0.055162102 0 0 0 0 0 0 0
-0.19586399 -1.7244292 -0.33735034 0 0 0 0 0 0 0
-0.12588646 -1.1066084 0.097440116 0 0 0 0 0 0 0
-0.12522663 -1.0991001 -0.17520662 0 0 0 0 0 0 0
-0.13031137 -1.1419575 0.14112473 0 0 0 0 0 0 0
-0.11676096 -1.0216273 -0.12625664 0 0 0 0 0 0 0
-0.14085339 -1.2305261 0.19616884 0 0 0 0 0 0 0
-0.11465015 -1.0016087 -0.088201612 0 0 0 0 0 0 0
-0.19185619 -1.6735108 0.32742825 0 0 0 0 0 0 0
-0.11163557 -0.97226894 -0.051289242 0 0 0 0 0 0 0
-0.147827 -1.2854917 0.29873499 0 0 0 0 0 0 0
-0.11439962 -0.99328154 -0.017452406 0 0 0 0 0 0 0
-0.12861682 -1.1150124 0.30074775 0 0 0 0 0 0 0
-0.18076277 -1.5504344 -0.4182516 0 0 0 0 0 0 0
-0.12129378 -1.0387833 0.018255217 0 0 0 0 0 0 0
-0.2014492 -1.7226398 -0.40041289 0 0 0 0 0 0 0
-0.12336689 -1.053345 0.055580791 0 0 0 0 0 0 0
-0.20553641 -1.7549338 -0.34345621 0 0 0 0 0 0 0
-0.12812363 -1.0923105 0.096219942 0 0 0 0 0 0 0
-0.13090611 -1.1143514 -0.17770956 0 0 0 0 0 0 0
-0.13476081 -1.1454387 0.14161219 0 0 0 0 0 0 0
-0.12032642 -1.0212134 -0.12625664 0 0 0 0 0 0 0
-0.14468476 -1.2261033 0.1955431 0 0 0 0 0 0 0
-0.11744515 -0.99526638 -0.087678678 0 0 0 0 0 0 0
-0.20092231 -1.7001264 0.33277091 0 0 0 0 0 0 0
-0.11549827 -0.97584015 -0.051498584 0 0 0 0 0 0 0
-0.1527721 -1.2888381 0.29963478 0 0 0 0 0 0 0
-0.1183375 -0.99684769 -0.017522216 0 0 0 0 0 0 0
-0.13068365 -1.0992098 0.29660663 0 0 0 0 0 0 0
-0.18456066 -1.5363675 -0.41462815 0 0 0 0 0 0 0
-0.12348599 -1.0264412 0.018045789 0 0 0 0 0 0 0
-0.20722805 -1.7199914 -0.39996299 0 0 0 0 0 0 0
-0.1270429 -1.0529078 0.055580791 0 0 0 0 0 0 0
-0.25023016 -2.0738609 -0.40604156 0 0 0 0 0 0 0
-0.13217476 -1.0938345 0.096394248 0 0 0 0 0 0 0
-0.13479528 -1.1138877 -0.17770956 0 0 0 0 0 0 0
-0.13995235 -1.1548146 0.14283088 0 0 0 0 0 0 0
-0.12389029 -1.0207872 -0.12625664 0 0 0 0 0 0 0
-0.14944065 -1.2295127 0.19616884 0 0 0 0 0 0 0
-0.1209187 -0.99485034 -0.087678678 0 0 0 0 0 0 0
-0.2021111 -1.6604373 0.32513854 0 0 0 0 0 0 0
-0.11987061 -0.98336142 -0.051917274 0 0 0 0 0 0 0
-0.15632553 -1.2805597 0.2978352 0 0 0 0 0 0 0
-0.12278711 -1.0043683 -0.017661836 0 0 0 0 0 0 0
-0.13264172 -1.0834067 0.29246551 0 0 0 0 0 0 0
-0.19039652 -1.5395484 -0.41566339 0 0 0 0 0 0 0
-0.12657666 -1.0220349 0.01797598 0 0 0 0 0 0 0
-0.21299088 -1.7173238 -0.3995131 0 0 0 0 0 0 0
-0.13194823 -1.0623682 0.05610415 0 0 0 0 0 0 0
-0.26230723 -2.1119406 -0.41367394 0 0 0 0 0 0 0
-0.13697587 -1.1012752 0.097091496 0 0 0 0 0 0 0
-0.13941503 -1.1192911 -0.17864819 0 0 0 0 0 0 0
-0.14250836 -1.1425 0.14136845 0 0 0 0 0 0 0
-0.12892906 -1.0321673 -0.12771909 0 0 0 0 0 0 0
-0.1539766 -1.2309436 0.1964817 0 0 0 0 0 0 0
-0.12587433 -1.006284 -0.088724539 0 0 0 0 0 0 0
-0.20790613 -1.6597216 0.32513854 0 0 0 0 0 0 0
-0.12230811 -0.97501004 -0.051498584 0 0 0 0 0 0 0
-0.16128023 -1.2838732 0.29873499 0 0 0 0 0 0 0
-0.12654188 -1.0059175 -0.01769674 0 0 0 0 0 0 0
-0.13932021 -1.1059375 0.29867718 0 0 0 0 0 0 0
-0.1969886 -1.5484564 -0.4182516 0 0 0 0 0 0 0
-0.13090149 -1.0275379 0.018080693 0 0 0 0 0 0 0
-0.21775098 -1.7069043 -0.39726356 0 0 0 0 0 0 0
-0.13489668 -1.0559577 0.055790137 0 0 0 0 0 0 0
-0.27141941 -2.124644 -0.41634527 0 0 0 0 0 0 0
-0.14056642 -1.0988141 0.09691719 0 0 0 0 0 0 0
-0.14432514 -1.1266352 -0.17989966 0 0 0 0 0 0 0
-0.14599043 -1.1380577 0.14088097 0 0 0 0 0 0 0
-0.13126662 -1.0218663 -0.1265004 0 0 0 0 0 0 0
-0.1582725 -1.2303987 0.1964817 0 0 0 0 0 0 0
-0.13040297 -1.013743 -0.089421786 0 0 0 0 0 0 0
-0.21419984 -1.6628802 0.32590178 0 0 0 0 0 0 0
-0.12519968 -0.97061551 -0.051289242 0 0 0 0 0 0 0
-0.16376388 -1.2678409 0.29513577 0 0 0 0 0 0 0
-0.13082187 -1.0114193 -0.017801456 0 0 0 0 0 0 0
-0.14268343 -1.1016129 0.29764193 0 0 0 0 0 0 0
-0.20189141 -1.5439283 -0.41721633 0 0 0 0 0 0 0
-0.13500674 -1.0310402 0.018150503 0 0 0 0 0 0 0
-0.22345476 -1.7042016 -0.39681366 0 0 0 0 0 0 0
-0.13728172 -1.045579 0.055266771 0 0 0 0 0 0 0
-0.27602264 -2.1022718 -0.41214746 0 0 0 0 0 0 0
-0.14518017 -1.1042428 0.097440116 0 0 0 0 0 0 0
-0.14954631 -1.1359168 -0.181464 0 0 0 0 0 0 0
-0.15074034 -1.1434454 0.14161219 0 0 0 0 0 0 0
-0.13587201 -1.0292739 -0.12747534 0 0 0 0 0 0 0
-0.16101329 -1.2180887 0.1946045 0 0 0 0 0 0 0
-0.13524631 -1.0231577 -0.090293348 0 0 0 0 0 0 0
-0.21794221 -1.6465522 0.32284883 0 0 0 0 0 0 0
-0.13042396 -0.98403215 -0.052021943 0 0 0 0 0 0 0
-0.16767558 -1.2633979 0.29423597 0 0 0 0 0 0 0
-0.13487849 -1.0149209 -0.017871264 0 0 0 0 0 0 0
-0.14754725 -1.108768 0.29971248 0 0 0 0 0 0 0
-0.20676517 -1.5393848 -0.41618103 0 0 0 0 0 0 0
-0.13913804 -1.0345263 0.018220313 0 0 0 0 0 0 0
-0.23044239 -1.7111365 -0.39861327 0 0 0 0 0 0 0
-0.14333287 -1.0629075 0.056208819 0 0 0 0 0 0 0
-0.28335929 -2.1012955 -0.41214746 0 0 0 0 0 0 0
-0.14823402 -1.097806 0.09691719 0 0 0 0 0 0 0
-0.15403973 -1.139303 -0.18208973 0 0 0 0 0 0 0
-0.15606256 -1.152748 0.14283088 0 0 0 0 0 0 0
-0.13973072 -1.0307605 -0.12771909 0 0 0 0 0 0 0
-0.16473272 -1.2136043 0.19397876 0 0 0 0 0 0 0
-0.13801292 -1.0167565 -0.089770414 0 0 0 0 0 0 0
-0.21099691 -1.5524037 0.30453119 0 0 0 0 0 0 0
-0.13412745 -0.98554993 -0.052126616 0 0 0 0 0 0 0
-0.17155826 -1.2589431 0.29333615 0 0 0 0 0 0 0
-0.13760936 -1.0085 -0.017766548 0 0 0 0 0 0 0
-0.14984761 -1.0967617 0.29660663 0 0 0 0 0 0 0
-0.21187359 -1.5367399 -0.41566339 0 0 0 0 0 0 0
-0.14165455 -1.0261108 0.018080693 0 0 0 0 0 0 0
-0.23961583 -1.7334864 -0.40401211 0 0 0 0 0 0 0
-0.14758992 -1.0663575 0.056418166 0 0 0 0 0 0 0
-0.29123083 -2.1041827 -0.41291067 0 0 0 0 0 0 0
-0.15151821 -1.0933348 0.096568562 0 0 0 0 0 0 0
-0.15665834 -1.1289752 -0.18052539 0 0 0 0 0 0 0
-0.15981217 -1.1502301 0.14258714 0 0 0 0 0 0 0
-0.14332779 -1.0302665 -0.12771909 0 0 0 0 0 0 0
-0.16978574 -1.2188914 0.19491737 0 0 0 0 0 0 0
-0.1410116 -1.0123218 -0.089421786 0 0 0 0 0 0 0
-0.19851546 -1.4233253 0.27934438 0 0 0 0 0 0 0
-0.13894796 -0.99496615 -0.052649979 0 0 0 0 0 0 0
-0.1770314 -1.2660564 0.29513577 0 0 0 0 0 0 0
-0.14140615 -1.0099939 -0.017801456 0 0 0 0 0 0 0
-0.15421142 -1.1000584 0.29764193 0 0 0 0 0 0 0
-0.21723637 -1.5359911 -0.41566339 0 0 0 0 0 0 0
-0.14523539 -1.02561 0.018080693 0 0 0 0 0 0 0
-0.2494956 -1.7596515 -0.41031075 0 0 0 0 0 0 0
-0.15074976 -1.0618809 0.056208819 0 0 0 0 0 0 0
-0.29802197 -2.0992661 -0.41214746 0 0 0 0 0 0 0
-0.15785724 -1.1105523 0.098137364 0 0 0 0 0 0 0
-0.16059813 -1.1284215 -0.18052539 0 0 0 0 0 0 0
-0.16242604 -1.1398389 0.14136845 0 0 0 0 0 0 0
-0.14860559 -1.0415511 -0.12918152 0 0 0 0 0 0 0
-0.1743187 -1.2202469 0.19523023 0 0 0 0 0 0 0
-0.14567138 -1.019713 -0.090119034 0 0 0 0 0 0 0
-0.20042482 -1.4012452 0.27514657 0 0 0 0 0 0 0
-0.14100462 -0.98458952 -0.052126616 0 0 0 0 0 0 0
-0.18227936 -1.2712178 0.29648548 0 0 0 0 0 0 0
-0.14606754 -1.0174116 -0.017941073 0 0 0 0 0 0 0
-0.15969977 -1.1109865 0.30074775 0 0 0 0 0 0 0
-0.2225967 -1.5352234 -0.41566339 0 0 0 0 0 0 0
-0.150251 -1.0349915 0.018255217 0 0 0 0 0 0 0
-0.25759834 -1.7722692 -0.41346005 0 0 0 0 0 0 0
-0.15359278 -1.055419 0.055894807 0 0 0 0 0 0 0
-0.30732736 -2.1118124 -0.41481876 0 0 0 0 0 0 0
-0.16173285 -1.1099944 0.098137364 0 0 0 0 0 0 0
-0.16653208 -1.1415368 -0.18271549 0 0 0 0 0 0 0
-0.16726458 -1.1451577 0.14209966 0 0 0 0 0 0 0
-0.1510914 -1.0331692 -0.12820657 0 0 0 0 0 0 0
-0.17886314 -1.2215854 0.1955431 0 0 0 0 0 0 0
-0.1483639 -1.0132841 -0.0895961 0 0 0 0 0 0 0
-0.20417581 -1.3927671 0.2736201 0 0 0 0 0 0 0
-0.1450206 -0.98804349 -0.052335959 0 0 0 0 0 0 0
-0.1855825 -1.2628616 0.29468587 0 0 0 0 0 0 0
-0.15078235 -1.0248092 -0.018080693 0 0 0 0 0 0 0
-0.16357677 -1.1104223 0.30074775 0 0 0 0 0 0 0
-0.22937372 -1.5439914 -0.4182516 0 0 0 0 0 0 0
-0.15474549 -1.0403945 0.018359931 0 0 0 0 0 0 0
-0.26579264 -1.7848517 -0.41660935 0 0 0 0 0 0 0
-0.15698132 -1.052901 0.055790137 0 0 0 0 0 0 0
-0.31295988 -2.0990763 -0.41252908 0 0 0 0 0 0 0
-0.16619466 -1.1133642 0.098485984 0 0 0 0 0 0 0
-0.16993198 -1.1370412 -0.18208973 0 0 0 0 0 0 0
-0.17096703 -1.1426038 0.14185593 0 0 0 0 0 0 0
-0.15528502 -1.0365617 -0.12869403 0 0 0 0 0 0 0
-0.18224737 -1.2150931 0.1946045 0 0 0 0 0 0 0
-0.15278676 -1.0186712 -0.090119034 0 0 0 0 0 0 0
-0.2043716 -1.3609821 0.26751423 0 0 0 0 0 0 0
-0.14906244 -0.99148154 -0.052545305 0 0 0 0 0 0 0
-0.19085965 -1.2679874 0.29603559 0 0 0 0 0 0 0
-0.15316674 -1.0163672 -0.017941073 0 0 0 0 0 0 0
-0.16687547 -1.106024 0.29971248 0 0 0 0 0 0 0
-0.23476189 -1.5431814 -0.4182516 0 0 0 0 0 0 0
-0.1601828 -1.0517094 0.01856936 0 0 0 0 0 0 0
-0.27084613 -1.7762071 -0.41480973 0 0 0 0 0 0 0
-0.16197741 -1.0622468 0.056313496 0 0 0 0 0 0 0
-0.31998885 -2.09603 -0.41214746 0 0 0 0 0 0 0
-0.16857491 -1.1029297 0.097614422 0 0 0 0 0 0 0
-0.17539383 -1.1462044 -0.18365408 0 0 0 0 0 0 0
-0.17645751 -1.1518109 0.14307462 0 0 0 0 0 0 0
-0.15920347 -1.0379757 -0.12893778 0 0 0 0 0 0 0
-0.18477842 -1.2047194 0.19304016 0 0 0 0 0 0 0
-0.15513195 -1.0102544 -0.089421786 0 0 0 0 0 0 0
-0.20912096 -1.3602605 0.26751423 0 0 0 0 0 0 0
-0.15373792 -0.99885124 -0.052963994 0 0 0 0 0 0 0
-0.19736196 -1.2807953 0.29918489 0 0 0 0 0 0 0
-0.15714532 -1.0198065 -0.018010885 0 0 0 0 0 0 0
-0.16877501 -1.0940089 0.29660663 0 0 0 0 0 0 0
-0.23747233 -1.5251728 -0.41359285 0 0 0 0 0 0 0
-0.16274661 -1.0452448 0.018464647 0 0 0 0 0 0 0
-0.27733511 -1.7791501 -0.41570953 0 0 0 0 0 0 0
-0.16691612 -1.0695685 0.056732185 0 0 0 0 0 0 0
-0.17303967 -1.1062716 0.097963057 0 0 0 0 0 0 0
-0.17766751 -1.1358582 -0.18208973 0 0 0 0 0 0 0
-0.18181169 -1.1610253 0.14429331 0 0 0 0 0 0 0
-0.16387439 -1.0452867 -0.12991273 0 0 0 0 0 0 0
-0.18959501 -1.2079699 0.19366589 0 0 0 0 0 0 0
-0.1598947 -1.0175797 -0.090119034 0 0 0 0 0 0 0
-0.2093643 -1.3324072 0.26217157 0 0 0 0 0 0 0
-0.15891154 -1.0101738 -0.053592026 0 0 0 0 0 0 0
-0.20645893 -1.3109342 0.30638334 0 0 0 0 0 0 0
-0.16101573 -1.0212269 -0.018045789 0 0 0 0 0 0 0
-0.17440009 -1.1048626 0.29971248 0 0 0 0 0 0 0
-0.24586767 -1.5453633 -0.41928688 0 0 0 0 0 0 0
-0.16576503 -1.0407208 0.018394835 0 0 0 0 0 0 0
-0.28170246 -1.7666246 -0.41301015 0 0 0 0 0 0 0
-0.17159328 -1.0748961 0.057046197 0 0 0 0 0 0 0
-0.21602368 -1.3532174 -0.26636937 0 0 0 0 0 0 0
-0.1782793 -1.1155288 0.098834611 0 0 0 0 0 0 0
-0.18163122 -1.135231 -0.18208973 0 0 0 0 0 0 0
-0.1839796 -1.1486231 0.14283088 0 0 0 0 0 0 0
-0.16846505 -1.0505883 -0.13064395 0 0 0 0 0 0 0
-0.19443657 -1.2112017 0.19429164 0 0 0 0 0 0 0
-0.16579443 -1.0327815 -0.091513529 0 0 0 0 0 0 0
-0.21121019 -1.3142228 0.258737 0 0 0 0 0 0 0
-0.16116773 -1.0017253 -0.053173337 0 0 0 0 0 0 0
-0.21599208 -1.3409885 0.31358176 0 0 0 0 0 0 0
-0.16521609 -1.0246071 -0.018115599 0 0 0 0 0 0 0
-0.17702416 -1.0966184 0.29764193 0 0 0 0 0 0 0
-0.25063998 -1.5406822 -0.4182516 0 0 0 0 0 0 0
-0.17132546 -1.051978 0.018604266 0 0 0 0 0 0 0
-0.28786746 -1.7656305 -0.41301015 0 0 0 0 0 0 0
-0.1750225 -1.0723194 0.056941528 0 0 0 0 0 0 0
-0.22074585 -1.352455 -0.26636937 0 0 0 0 0 0 0
-0.18313603 -1.1207986 0.099357553 0 0 0 0 0 0 0
-0.18750632 -1.1462868 -0.18396695 0 0 0 0 0 0 0
-0.18830863 -1.1499329 0.14307462 0 0 0 0 0 0 0
-0.17341572 -1.0578296 -0.1316189 0 0 0 0 0 0 0
-0.19866343 -1.2105155 0.19429164 0 0 0 0 0 0 0
-0.17133462 -1.043993 -0.092559397 0 0 0 0 0 0 0
-0.215478 -1.3115402 0.25835541 0 0 0 0 0 0 0
-0.1643393 -0.99918592 -0.053068664 0 0 0 0 0 0 0
-0.22067156 -1.3402264 0.31358176 0 0 0 0 0 0 0
-0.16944209 -1.0279702 -0.018185407 0 0 0 0 0 0 0
-0.18399623 -1.1150545 0.3028183 0 0 0 0 0 0 0
-0.25538257 -1.5359865 -0.41721633 0 0 0 0 0 0 0
-0.17598149 -1.0572913 0.01870898 0 0 0 0 0 0 0
-0.29402894 -1.7646149 -0.41301015 0 0 0 0 0 0 0
-0.17909317 -1.0736719 0.057046197 0 0 0 0 0 0 0
-0.22223534 -1.3323112 -0.26255319 0 0 0 0 0 0 0
-0.18606281 -1.114257 0.098834611 0 0 0 0 0 0 0
-0.19215775 -1.1495222 -0.18459269 0 0 0 0 0 0 0
-0.19264929 -1.1512264 0.14331836 0 0 0 0 0 0 0
-0.17677924 -1.0552601 -0.13137516 0 0 0 0 0 0 0
-0.20288759 -1.2098147 0.19429164 0 0 0 0 0 0 0
-0.17629582 -1.0512484 -0.093256645 0 0 0 0 0 0 0
-0.21842977 -1.3010993 0.25644732 0 0 0 0 0 0 0
-0.17014326 -1.0123936 -0.053801365 0 0 0 0 0 0 0
-0.22211525 -1.3202306 0.30908275 0 0 0 0 0 0 0
-0.1740257 -1.0332884 -0.018290123 0 0 0 0 0 0 0
-0.18724506 -1.1105953 0.301783 0 0 0 0 0 0 0
-0.25847831 -1.5217537 -0.41359285 0 0 0 0 0 0 0
-0.18168235 -1.0684988 0.01891841 0 0 0 0 0 0 0
-0.30018666 -1.7635779 -0.41301015 0 0 0 0 0 0 0
-0.18518832 -1.0868225 0.057778902 0 0 0 0 0 0 0
-0.22490601 -1.3199153 -0.26026347 0 0 0 0 0 0 0
-0.1899512 -1.1136007 0.098834611 0 0 0 0 0 0 0
-0.19749899 -1.1566331 -0.18584417 0 0 0 0 0 0 0
-0.1983389 -1.1603305 0.14453706 0 0 0 0 0 0 0
-0.18146616 -1.0605066 -0.13210639 0 0 0 0 0 0 0
-0.20644255 -1.205205 0.19366589 0 0 0 0 0 0 0
-0.18030082 -1.0525904 -0.093430951 0 0 0 0 0 0 0
-0.22197461 -1.2945238 0.25530246 0 0 0 0 0 0 0
-0.17604129 -1.0255729 -0.054534074 0 0 0 0 0 0 0
-0.22606252 -1.3156061 0.30818295 0 0 0 0 0 0 0
-0.17729241 -1.0307038 -0.018255217 0 0 0 0 0 0 0
-0.18849796 -1.0947045 0.29764193 0 0 0 0 0 0 0
-0.26378849 -1.5208422 -0.41359285 0 0 0 0 0 0 0
-0.18438463 -1.0619476 0.018813694 0 0 0 0 0 0 0
-0.30567372 -1.7586794 -0.41211033 0 0 0 0 0 0 0
-0.18966553 -1.0901047 0.057988245 0 0 0 0 0 0 0
-0.22782925 -1.3094512 -0.25835541 0 0 0 0 0 0 0
-0.19315337 -1.1090051 0.098485984 0 0 0 0 0 0 0
-0.20051751 -1.1500986 -0.18490556 0 0 0 0 0 0 0
-0.20204671 -1.1576755 0.14429331 0 0 0 0 0 0 0
-0.18687513 -1.069644 -0.13332509 0 0 0 0 0 0 0
-0.21098845 -1.2064229 0.19397876 0 0 0 0 0 0 0
-0.18294415 -1.0460668 -0.092908025 0 0 0 0 0 0 0
-0.22649202 -1.2937411 0.25530246 0 0 0 0 0 0 0
-0.17996491 -1.0269194 -0.054638743 0 0 0 0 0 0 0
-0.22896972 -1.3052118 0.30593342 0 0 0 0 0 0 0
-0.18261853 -1.0399263 -0.018429741 0 0 0 0 0 0 0
-0.1923182 -1.0940398 0.29764193 0 0 0 0 0 0 0
-0.27077961 -1.5294234 -0.41618103 0 0 0 0 0 0 0
-0.18878834 -1.0652354 0.018883504 0 0 0 0 0 0 0
-0.30874699 -1.7403327 -0.40806124 0 0 0 0 0 0 0
-0.19486646 -1.0973021 0.058406934 0 0 0 0 0 0 0
-0.23617476 -1.329911 -0.26255319 0 0 0 0 0 0 0
-0.19806954 -1.1142091 0.099008918 0 0 0 0 0 0 0
-0.20487684 -1.1513364 -0.18521842 0 0 0 0 0 0 0
-0.20573843 -1.1550088 0.14404957 0 0 0 0 0 0 0
-0.19269854 -1.0807108 -0.1347875 0 0 0 0 0 0 0
-0.21728085 -1.2173471 0.19585598 0 0 0 0 0 0 0
-0.19009523 -1.0650358 -0.09465114 0 0 0 0 0 0 0
-0.22824426 -1.2774814 0.25224951 0 0 0 0 0 0 0
-0.18600985 -1.0400474 -0.055371448 0 0 0 0 0 0 0
-0.23318098 -1.3024863 0.30548352 0 0 0 0 0 0 0
-0.18730569 -1.0451876 -0.018534455 0 0 0 0 0 0 0
-0.19750026 -1.1009679 0.29971248 0 0 0 0 0 0 0
-0.2761167 -1.5284687 -0.41618103 0 0 0 0 0 0 0
-0.19392893 -1.0724411 0.019023122 0 0 0 0 0 0 0
-0.25546572 -1.4113383 -0.33112797 0 0 0 0 0 0 0
-0.19798346 -1.0926846 0.058197591 0 0 0 0 0 0 0
-0.23626535 -1.3039651 -0.25759214 0 0 0 0 0 0 0
-0.20124656 -1.1095901 0.098660305 0 0 0 0 0 0 0
-0.21101186 -1.162276 -0.18709564 0 0 0 0 0 0 0
-0.2097688 -1.1542836 0.14404957 0 0 0 0 0 0 0
-0.19575907 -1.0761254 -0.13430002 0 0 0 0 0 0 0
-0.22046737 -1.2107508 0.19491737 0 0 0 0 0 0 0
-0.1952396 -1.0722064 -0.095348388 0 0 0 0 0 0 0
-0.23375814 -1.2824712 0.25339437 0 0 0 0 0 0 0
-0.19071451 -1.0452862 -0.055685461 0 0 0 0 0 0 0
-0.23457514 -1.2844112 0.3014344 0 0 0 0 0 0 0
-0.19382985 -1.0602642 -0.018813694 0 0 0 0 0 0 0
-0.20134205 -1.1002718 0.29971248 0 0 0 0 0 0 0
-0.28250042 -1.5331954 -0.41773397 0 0 0 0 0 0 0
-0.19912194 -1.0796237 0.019162742 0 0 0 0 0 0 0
-0.24340884 -1.3184528 -0.30953264 0 0 0 0 0 0 0
-0.20143349 -1.0900228 0.058092915 0 0 0 0 0 0 0
-0.20765536 -1.122595 0.099880479 0 0 0 0 0 0 0
-0.21542722 -1.1634747 -0.18740851 0 0 0 0 0 0 0
-0.21452028 -1.1574482 0.14453706 0 0 0 0 0 0 0
-0.20096266 -1.0832427 -0.13527498 0 0 0 0 0 0 0
-0.22324955 -1.2022052 0.19366589 0 0 0 0 0 0 0
-0.2000723 -1.077395 -0.095871314 0 0 0 0 0 0 0
-0.23895097 -1.2855078 0.25415757 0 0 0 0 0 0 0
-0.20422648 -1.0976301 -0.058511604 0 0 0 0 0 0 0
-0.2369162 -1.2720897 0.29873499 0 0 0 0 0 0 0
-0.19752972 -1.0595812 -0.018813694 0 0 0 0 0 0 0
-0.20730788 -1.1109567 0.3028183 0 0 0 0 0 0 0
-0.2821435 -1.5018216 -0.40945172 0 0 0 0 0 0 0
-0.20436774 -1.0867831 0.019302363 0 0 0 0 0 0 0
-0.2444047 -1.2984442 -0.30503362 0 0 0 0 0 0 0
-0.20782578 -1.1030521 0.058825623 0 0 0 0 0 0 0
-0.24281847 -1.2887788 -0.25492084 0 0 0 0 0 0 0
-0.210465 -1.1159896 0.099357553 0 0 0 0 0 0 0
-0.22095276 -1.17048 -0.18866 0 0 0 0 0 0 0
-0.22003351 -1.1644945 0.145512 0 0 0 0 0 0 0
-0.20621832 -1.0903366 -0.13624993 0 0 0 0 0 0 0
-0.22744472 -1.2014185 0.19366589 0 0 0 0 0 0 0
-0.20457315 -1.0806053 -0.096219942 0 0 0 0 0 0 0
-0.24380235 -1.286595 0.25453922 0 0 0 0 0 0 0
-0.21028973 -1.1086842 -0.059139632 0 0 0 0 0 0 0
-0.24099189 -1.2693404 0.2982851 0 0 0 0 0 0 0
-0.20272037 -1.0667434 -0.018953314 0 0 0 0 0 0 0
-0.20901848 -1.0988393 0.29971248 0 0 0 0 0 0 0
-0.25141573 -1.3129871 -0.35820559 0 0 0 0 0 0 0
-0.20778356 -1.0840992 0.019267458 0 0 0 0 0 0 0
-0.24710001 -1.2880138 -0.30278412 0 0 0 0 0 0 0
-0.21205142 -1.1042814 0.058930293 0 0 0 0 0 0 0
-0.24139182 -1.2570748 -0.24881494 0 0 0 0 0 0 0
-0.21435915 -1.1152482 0.099357553 0 0 0 0 0 0 0
-0.22279815 -1.1580628 -0.18678276 0 0 0 0 0 0 0
-0.22447243 -1.1656687 0.14575575 0 0 0 0 0 0 0
-0.21340437 -1.1071532 -0.13844359 0 0 0 0 0 0 0
-0.23238555 -1.2044965 0.19429164 0 0 0 0 0 0 0
-0.20985369 -1.0877099 -0.09691719 0 0 0 0 0 0 0
